ply
format ascii 1.0
element vertex 796
property float x
property float y
property float z
end_header
0.4254956543445587 0.48990580439567566 0.0013086337130516768
0.44616103172302246 0.5137045383453369 0.0013055155286565423
0.4416240453720093 0.5084914565086365 0.0013108561979606748
0.42314809560775757 0.4871731996536255 0.0012753969058394432
0.417449414730072 0.48063433170318604 0.0012730226153507829
0.4380941390991211 0.5044119358062744 0.0012918519787490368
0.4380941390991211 0.5044119358062744 0.0012918519787490368
0.45240363478660583 0.5208647847175598 0.001282460754737258
0.43511006236076355 0.5010287761688232 0.00133894186001271
0.42754581570625305 0.49234864115715027 0.001365044852718711
0.4436458647251129 0.5108041167259216 0.0012971111573278904
0.42804327607154846 0.49291202425956726 0.0013539318460971117
0.42301467061042786 0.48699089884757996 0.0012487764470279217
0.4397032856941223 0.5062540769577026 0.0012840547133237123
0.39309999346733093 0.4524744153022766 0.0011245515197515488
0.43948525190353394 0.5059878826141357 0.0012669109273701906
0.42774710059165955 0.49254781007766724 0.001332195126451552
0.4403400719165802 0.5069782733917236 0.0012734831543639302
0.4437622129917145 0.5108997821807861 0.0012589830439537764
0.42647838592529297 0.491079181432724 0.001320754992775619
0.4277210533618927 0.4925024211406708 0.001317788497544825
0.43011611700057983 0.4952596127986908 0.0013174943160265684
0.42129233479499817 0.48494163155555725 0.0011922500561922789
0.4459364116191864 0.5133817791938782 0.0012394030345603824
0.4459364116191864 0.5133817791938782 0.0012394030345603824
0.4438592791557312 0.5109821557998657 0.001228596898727119
0.4476802349090576 0.5153793692588806 0.001229544635862112
0.4490155875682831 0.5168948769569397 0.0012050251243636012
0.42652761936187744 0.49110403656959534 0.0012980790343135595
0.4250866174697876 0.4894360601902008 0.001287331571802497
0.4190322756767273 0.482198029756546 0.0010732728987932205
0.428031325340271 0.492841511964798 0.0012976384023204446
0.4299161732196808 0.4950082302093506 0.0012966390931978822
0.4310678243637085 0.4963144063949585 0.0012956715654581785
0.426579087972641 0.4911535978317261 0.0012879696441814303
0.42576903104782104 0.4902133643627167 0.001281467149965465
0.42354705929756165 0.48760488629341125 0.0012405143352225423
0.4364076554775238 0.5024310350418091 0.0012518223375082016
0.4364076554775238 0.5024310350418091 0.0012518223375082016
0.4261825978755951 0.49069127440452576 0.0012799135874956846
0.42738720774650574 0.4920818507671356 0.0012837715912610292
0.4261360466480255 0.4906276762485504 0.0012721464736387134
0.4241514503955841 0.48831385374069214 0.0012484240578487515
0.4257121980190277 0.4901309311389923 0.0012653341982513666
0.4251115918159485 0.48942631483078003 0.0012553870910778642
0.4251115918159485 0.48942631483078003 0.0012553870910778642
0.42002806067466736 0.4834749400615692 0.0011516765225678682
0.42465484142303467 0.4888860583305359 0.0012421627761796117
0.41881290078163147 0.4819904565811157 0.0010986151173710823
0.4428413212299347 0.509780764579773 0.001199244987219572
0.41960054636001587 0.48291394114494324 0.0011159211862832308
0.4285415709018707 0.4933781921863556 0.0012539299204945564
0.4501522183418274 0.5181856751441956 0.0011910011526197195
0.4501522183418274 0.5181856751441956 0.0011910011526197195
0.44611987471580505 0.5135458707809448 0.0011893489863723516
0.4424211084842682 0.5092968940734863 0.0012002853909507394
0.4437847137451172 0.5108467936515808 0.001178229576908052
0.43152183294296265 0.4967896342277527 0.0012340560788288713
0.4311688244342804 0.49636194109916687 0.0012114455457776785
0.43686723709106445 0.5029136538505554 0.0012078675208613276
0.4249916672706604 0.4892641603946686 0.0012284449767321348
0.4381963908672333 0.5044316649436951 0.0011957744136452675
0.4381963908672333 0.5044316649436951 0.0011957744136452675
0.4381229877471924 0.5043534636497498 0.0012039425782859325
0.42630672454833984 0.49077415466308594 0.0012253981549292803
0.42630672454833984 0.49077415466308594 0.0012253981549292803
0.42153841257095337 0.4851911962032318 0.0011503053829073906
0.4387446343898773 0.5050428509712219 0.001174207660369575
0.4407695531845093 0.507370114326477 0.0011721859918907285
0.42078572511672974 0.48430192470550537 0.001130167511291802
0.41895097494125366 0.48208141326904297 0.0010456640738993883
0.4330624043941498 0.4985271692276001 0.0011991842184215784
0.4203033149242401 0.4837530851364136 0.0011325438972562551
0.4388308823108673 0.5051397085189819 0.0011738217435777187
0.4415387213230133 0.5082533359527588 0.0011720469919964671
0.4233579933643341 0.48734477162361145 0.0011918896343559027
0.43231403827667236 0.49765831232070923 0.0011923746205866337
0.43141844868659973 0.4966197907924652 0.0011842087842524052
0.42705434560775757 0.4916074872016907 0.001195858116261661
0.41873228549957275 0.48189154267311096 0.0010860387701541185
0.41915062069892883 0.482356458902359 0.001073849038220942
0.4246707558631897 0.4888467788696289 0.0011844801483675838
0.4198417365550995 0.4831998944282532 0.0011103324359282851
0.426188588142395 0.49059733748435974 0.001182610634714365
0.4205237030982971 0.48400044441223145 0.0011223240289837122
0.4242137670516968 0.48831287026405334 0.001172008109278977
0.41772860288619995 0.48066768050193787 0.0010287273908033967
0.4308297634124756 0.49592188000679016 0.0011650834931060672
0.4353145956993103 0.5010780096054077 0.00116134830750525
0.4263126254081726 0.49072346091270447 0.0011690201936289668
0.4264252185821533 0.4908541142940521 0.001168038579635322
0.42061421275138855 0.48410069942474365 0.0011167434277012944
0.42326653003692627 0.48719528317451477 0.0011505123693495989
0.42178571224212646 0.4854319095611572 0.0011070723412558436
0.4200488328933716 0.48345473408699036 0.001118302228860557
0.4255763590335846 0.4898638427257538 0.0011566865723580122
0.427709698677063 0.4923219382762909 0.0011604473693296313
0.4243243634700775 0.48841601610183716 0.0011515234364196658
0.43037086725234985 0.49537649750709534 0.001148871029727161
0.42970436811447144 0.49461600184440613 0.0011606665793806314
0.4236660897731781 0.4876529276371002 0.0011445475975051522
0.42495325207710266 0.4891354441642761 0.0011458988301455975
0.429847776889801 0.49476349353790283 0.001139806117862463
0.4212096333503723 0.48473432660102844 0.0010762277524918318
0.4272232949733734 0.4917411804199219 0.001138135208748281
0.4254932403564453 0.4897485375404358 0.0011383419623598456
0.42503225803375244 0.4892064034938812 0.0011305068619549274
0.41921767592430115 0.48238301277160645 0.0010274421656504273
0.43081599473953247 0.4958602786064148 0.0011205149348825216
0.43081599473953247 0.4958602786064148 0.0011205149348825216
0.4235525131225586 0.4874855577945709 0.0011154147796332836
0.42327776551246643 0.4871789813041687 0.0011191349476575851
0.4306558072566986 0.4956706464290619 0.001117104198783636
0.43094050884246826 0.49599453806877136 0.0011125457240268588
0.43094050884246826 0.49599453806877136 0.0011125457240268588
0.42079755663871765 0.484293133020401 0.0010941169457510114
0.42523911595344543 0.48942872881889343 0.0011150204809382558
0.41727757453918457 0.48009660840034485 0.0009783839341253042
0.4299582839012146 0.49484384059906006 0.0010915889870375395
0.42340028285980225 0.4872988760471344 0.0010962501401081681
0.4215693175792694 0.48516666889190674 0.0010819120798259974
0.4208800196647644 0.48435264825820923 0.0010660375701263547
0.43133050203323364 0.4964151978492737 0.0010838445741683245
0.43133050203323364 0.4964151978492737 0.0010838445741683245
0.42269763350486755 0.48647022247314453 0.0010839769383892417
0.42269763350486755 0.48647022247314453 0.0010839769383892417
0.4336022138595581 0.4990256130695343 0.001079172594472766
0.4258365035057068 0.4900960624217987 0.001092970953322947
0.421748548746109 0.48535698652267456 0.0010673023061826825
0.25946804881095886 0.2982393503189087 0.0005775761092081666
0.41722604632377625 0.48003247380256653 0.0009718303335830569
0.42650526762008667 0.4908585846424103 0.0010856431908905506
0.4203573763370514 0.4837391674518585 0.0010521793738007545
0.42030835151672363 0.48367416858673096 0.0010462210047990084
0.4199526607990265 0.4832662045955658 0.0010461760684847832
0.4187738597393036 0.48185065388679504 0.0010013801511377096
0.42024970054626465 0.4836123287677765 0.0010477963369339705
0.41544926166534424 0.47801193594932556 0.0009839137783274055
0.43092086911201477 0.4959219992160797 0.0010659568943083286
0.42056646943092346 0.48396986722946167 0.0010424972278997302
0.41701793670654297 0.4797969460487366 0.0009713940671645105
0.4293673634529114 0.4941325783729553 0.0010649623582139611
0.4312392473220825 0.49627310037612915 0.0010472360299900174
0.41620567440986633 0.4787554144859314 0.0008883007685653865
0.4164782166481018 0.4790962040424347 0.0009094364941120148
0.41646817326545715 0.47912946343421936 0.000943083199672401
0.42428839206695557 0.4882676303386688 0.0010509691201150417
0.4177338778972626 0.48064446449279785 0.0009879149729385972
0.43225353956222534 0.4974345266819 0.00104377546813339
0.4150899648666382 0.4774697422981262 0.0008830102742649615
0.41400906443595886 0.4761979877948761 0.000858701765537262
0.4187818467617035 0.4818742573261261 0.0010066862450912595
0.4143275022506714 0.4765624701976776 0.0008572055376134813
0.4188266396522522 0.4818989932537079 0.000984199345111847
0.42199942469596863 0.4855951964855194 0.0010197802912443876
0.4233022928237915 0.4871118664741516 0.001029300969094038
0.4324099123477936 0.49758052825927734 0.0010087972041219473
0.413795530796051 0.47589465975761414 0.000811464327853173
0.42140600085258484 0.4848783612251282 0.000988128362223506
0.4223291575908661 0.48595306277275085 0.0009942167671397328
0.42368751764297485 0.4874919652938843 0.0009671337902545929
0.4235855042934418 0.4873652756214142 0.00096078438218683
0.4243486821651459 0.48824235796928406 0.0009568968089297414
0.41931015253067017 0.482406884431839 0.0009335876093246043
0.4220096170902252 0.48553788661956787 0.0009499769657850266
0.42406609654426575 0.48789939284324646 0.0009411120554432273
0.42406609654426575 0.48789939284324646 0.0009411120554432273
0.41944894194602966 0.4825643002986908 0.0009282751125283539
0.418322890996933 0.4812473952770233 0.000913042516913265
0.43101418018341064 0.49589836597442627 0.0009371921769343317
0.4241821765899658 0.48802366852760315 0.0009314666385762393
0.41693034768104553 0.4796221852302551 0.0008943385328166187
0.4204499125480652 0.4836990237236023 0.0009114643326029181
0.42366570234298706 0.48741331696510315 0.0009172504069283605
0.42230817675590515 0.4858452379703522 0.0009134766296483576
0.4167468547821045 0.47938692569732666 0.0008724123472347856
0.41849008202552795 0.48141923546791077 0.0008930823532864451
0.4190499186515808 0.4820765554904938 0.0009003040031529963
0.41995832324028015 0.48310860991477966 0.0008899657404981554
0.4185275733470917 0.48145216703414917 0.0008819998474791646
0.42217299342155457 0.4856562614440918 0.0008839804213494062
0.4188847541809082 0.48184117674827576 0.000863517401739955
0.4208008050918579 0.4840644896030426 0.0008725792285986245
0.4174337089061737 0.4801645278930664 0.0008562587900087237
0.4174337089061737 0.4801645278930664 0.0008562587900087237
0.42027363181114197 0.48344939947128296 0.0008667741785757244
0.4206739664077759 0.4838954210281372 0.0008523074793629348
0.4189985990524292 0.48195239901542664 0.0008426454733125865
0.41747763752937317 0.4801781177520752 0.0008265774231404066
0.4111500084400177 0.4727618992328644 0.0007207065355032682
0.5136874318122864 0.5912096500396729 0.0010237755486741662
0.0908021554350853 0.04496140405535698 0.00029551988700404763
0.58278489112854 0.34227943420410156 0.004594416823238134
0.5595650672912598 0.3037455677986145 0.0017016810597851872
0.5517471432685852 0.29243171215057373 0.000991381355561316
0.5528082847595215 0.2930544316768646 0.0010008815443143249
0.552643895149231 0.2918216586112976 0.0008947399910539389
0.5583490133285522 0.3013972342014313 0.0015311641618609428
0.5529863834381104 0.2926446795463562 0.0009549231035634875
0.5525758862495422 0.29206427931785583 0.0009195852326229215
0.5998155474662781 0.36253780126571655 0.0058527495712041855
0.5527010560035706 0.2920413911342621 0.0009121936745941639
0.5532346367835999 0.2929186522960663 0.0009680463699623942
0.5528357028961182 0.29206380248069763 0.00090804259525612
0.5528357028961182 0.29206380248069763 0.00090804259525612
0.5664231181144714 0.31219208240509033 0.0021949284709990025
0.5522522330284119 0.2917969822883606 0.000909587019123137
0.6068472266197205 0.36918285489082336 0.006191845051944256
0.6068472266197205 0.36918285489082336 0.006191845051944256
0.5536860227584839 0.29370278120040894 0.0010192557238042355
0.5524396300315857 0.29229119420051575 0.0009468646603636444
0.55327308177948 0.293364018201828 0.00100694817956537
0.55327308177948 0.293364018201828 0.00100694817956537
0.5695556402206421 0.3182309567928314 0.0026329064276069403
0.5577187538146973 0.3005106747150421 0.0014700870960950851
0.5543297529220581 0.2945426106452942 0.0010672223288565874
0.5539811253547668 0.2948332726955414 0.0011105583980679512
0.5542770624160767 0.2952936589717865 0.0011392985470592976
0.5595600605010986 0.30373090505599976 0.0016892710700631142
0.5519983768463135 0.2918931245803833 0.0009295456111431122
0.5551031231880188 0.2966076135635376 0.0012229447020217776
0.5546752214431763 0.2957057058811188 0.001158517668955028
0.5531275272369385 0.29322803020477295 0.001000753021799028
0.5537174344062805 0.29406851530075073 0.0010509715648368
0.592395544052124 0.3480953574180603 0.0045644971542060375
0.5927204489707947 0.34831514954566956 0.00457368977367878
0.5792986750602722 0.33187127113342285 0.0035201276186853647
0.5728000402450562 0.3226451873779297 0.0029030037112534046
0.5770607590675354 0.32840999960899353 0.003277475479990244
0.571942925453186 0.32421213388442993 0.0030895944219082594
0.561923623085022 0.3081818222999573 0.0020010536536574364
0.561923623085022 0.3081818222999573 0.0020010536536574364
0.5529137849807739 0.2934415638446808 0.0010290745412930846
0.587494432926178 0.3407410681247711 0.004025734029710293
0.587494432926178 0.3407410681247711 0.004025734029710293
0.5520825386047363 0.29192399978637695 0.0009281509555876255
0.552014172077179 0.2922191023826599 0.000957964570261538
0.5542982220649719 0.2958329916000366 0.0011875889031216502
0.5532844066619873 0.29393595457077026 0.0010578064247965813
0.5615812540054321 0.30632132291793823 0.001835583127103746
0.5615812540054321 0.30632132291793823 0.001835583127103746
0.552078902721405 0.29248565435409546 0.0009788526222109795
0.5913465619087219 0.34607094526290894 0.004384130239486694
0.5532236695289612 0.29420801997184753 0.0010855880100280046
0.6028542518615723 0.3584229648113251 0.0051043396815657616
0.5734549760818481 0.32311636209487915 0.0029072214383631945
0.5759695768356323 0.3262345492839813 0.0030970871448516846
0.5528737306594849 0.29450130462646484 0.0011289158137515187
0.5538074970245361 0.2953541576862335 0.0011643690522760153
0.5558630228042603 0.2981398403644562 0.0013279076665639877
0.5553818345069885 0.29764458537101746 0.0013043537037447095
0.5772847533226013 0.32799118757247925 0.0032077787909656763
0.5788465142250061 0.32988402247428894 0.003321045311167836
0.5801401138305664 0.33171582221984863 0.0034404988400638103
0.5702375173568726 0.3190554678440094 0.0026540285907685757
0.5542547702789307 0.296231210231781 0.0012242398224771023
0.5523121356964111 0.2931433618068695 0.0010279554408043623
0.5535068511962891 0.29555854201316833 0.001196685596369207
0.5809873938560486 0.3310180604457855 0.0033257186878472567
0.5564664006233215 0.29920297861099243 0.0013981183292344213
0.5617888569831848 0.3075912594795227 0.0019407328218221664
0.5520207285881042 0.29282012581825256 0.0010121535742655396
0.5531735420227051 0.29422101378440857 0.001088304677978158
0.5519200563430786 0.29240694642066956 0.0009791974443942308
0.5800814628601074 0.32864126563072205 0.0031257031951099634
0.5568907260894775 0.299861878156662 0.0014389867428690195
0.5527514219284058 0.29344093799591064 0.0010353389661759138
0.5554643869400024 0.2980513870716095 0.001335406326688826
0.5538647174835205 0.29547175765037537 0.0011711025144904852
0.5720409750938416 0.3203336298465729 0.002682839520275593
0.5720409750938416 0.3203336298465729 0.002682839520275593
0.5742205381393433 0.3230554461479187 0.002844031434506178
0.5523731708526611 0.29280513525009155 0.0009945434285327792
0.5523731708526611 0.29280513525009155 0.0009945434285327792
0.552699863910675 0.294005811214447 0.0010894503211602569
0.5702773928642273 0.3177622854709625 0.002512410981580615
0.5533826351165771 0.2948158085346222 0.0011318257311359048
0.5751959085464478 0.3242984712123871 0.002915856661275029
0.5529674291610718 0.2941148579120636 0.0010866516968235373
0.5533874034881592 0.29517966508865356 0.0011652637040242553
0.5533874034881592 0.29517966508865356 0.0011652637040242553
0.5533927083015442 0.29426154494285583 0.0010809589875862002
0.5558010339736938 0.2988795042037964 0.0013955672038719058
0.5703008770942688 0.3182991147041321 0.00256134569644928
0.5532844066619873 0.29443812370300293 0.001101778936572373
0.5551280379295349 0.29781222343444824 0.0013278363039717078
0.5518240332603455 0.2933995723724365 0.0010733645176514983
0.5517037510871887 0.29317373037338257 0.001058522961102426
0.5681583881378174 0.31552740931510925 0.0023923292756080627
0.05840549245476723 0.033768586814403534 0.000301506370306015
0.5719725489616394 0.3202000856399536 0.002664129715412855
0.5534876585006714 0.29478731751441956 0.0011242767795920372
0.5528549551963806 0.2943919599056244 0.0011170837096869946
0.5538839101791382 0.29565635323524475 0.0011857695644721389
0.5525946617126465 0.2941463887691498 0.0011067568557336926
0.5530626177787781 0.2964824140071869 0.0012984824134036899
0.5530626177787781 0.2964824140071869 0.0012984824134036899
0.5732823610305786 0.3212350308895111 0.0026998238172382116
0.5708585381507874 0.3187982738018036 0.002578244311735034
0.5708585381507874 0.3187982738018036 0.002578244311735034
0.5529884696006775 0.2946983277797699 0.0011389368446543813
0.5521247386932373 0.29351240396499634 0.0010697365505620837
0.5631188750267029 0.3092118501663208 0.0020224887412041426
0.5631188750267029 0.3092118501663208 0.0020224887412041426
0.5597046613693237 0.3039754331111908 0.0016883481293916702
0.565069854259491 0.3115028440952301 0.002149849431589246
0.565069854259491 0.3115028440952301 0.002149849431589246
0.5569007396697998 0.30107396841049194 0.0015461529837921262
0.5624799728393555 0.30814477801322937 0.0019506243988871574
0.553369402885437 0.29522719979286194 0.0011695704888552427
0.5560507774353027 0.2999385893344879 0.0014803041703999043
0.5560507774353027 0.2999385893344879 0.0014803041703999043
0.571664035320282 0.31560012698173523 0.002237261738628149
0.5563623309135437 0.3004477322101593 0.0015122938202694058
0.5529158115386963 0.29435983300209045 0.0011105438461527228
0.5707382559776306 0.318432092666626 0.0025420545134693384
0.5681893825531006 0.31552642583847046 0.002385009778663516
0.5744315981864929 0.32212135195732117 0.002725407248362899
0.5516558885574341 0.29389485716819763 0.0011255106655880809
0.5597324967384338 0.3040793538093567 0.0016952002188190818
0.5546448230743408 0.2975430190563202 0.0013233036734163761
0.556426465511322 0.30048859119415283 0.0015128843951970339
0.5567585825920105 0.2961803376674652 0.0010994637850672007
0.5577502250671387 0.2988656759262085 0.0013016863958910108
0.5827122926712036 0.32966896891593933 0.00306123704649508
0.5531502962112427 0.2954927980899811 0.0012029710924252868
0.5679822564125061 0.3150990605354309 0.002345119137316942
0.5528795123100281 0.29543253779411316 0.0012103556655347347
0.556985080242157 0.30101820826530457 0.001535641262307763
0.558515727519989 0.3029627203941345 0.001645084354095161
0.5584049820899963 0.3037395179271698 0.0017230320954695344
0.5549567341804504 0.29896989464759827 0.0014400489162653685
0.5666429400444031 0.31347978115081787 0.002256167121231556
0.5807159543037415 0.3278597593307495 0.0029801952186971903
0.5522574186325073 0.29479408264160156 0.0011802426306530833
0.5522574186325073 0.29479408264160156 0.0011802426306530833
0.5589584112167358 0.3034491240978241 0.0016696974635124207
0.5804665684700012 0.32638949155807495 0.002845084061846137
0.5527320504188538 0.2952478229999542 0.0011996966786682606
0.5667884349822998 0.3131939172744751 0.002217972418293357
0.5641239881515503 0.3110077679157257 0.0021377215161919594
0.5761573910713196 0.3226674497127533 0.0026886421255767345
0.5591673254966736 0.3031105697154999 0.0016286582686007023
0.5524582862854004 0.29486364126205444 0.0011769718257710338
0.5674666166305542 0.31398335099220276 0.002262213034555316
0.5587179064750671 0.30399253964424133 0.0017311477568000555
0.5788694620132446 0.3254372775554657 0.0028275614604353905
0.5682992935180664 0.31430700421333313 0.0022519531194120646
0.5574350953102112 0.2996576428413391 0.0013886581873521209
0.5532235503196716 0.29588863253593445 0.0012351165059953928
0.563754677772522 0.310197114944458 0.0020769548136740923
0.5524626970291138 0.2951885163784027 0.0012064080219715834
0.5524626970291138 0.2951885163784027 0.0012064080219715834
0.46288421750068665 0.28788578510284424 0.004080858547240496
0.5580604076385498 0.30267611145973206 0.0016375110717490315
0.566400408744812 0.31262654066085815 0.0021824627183377743
0.272904634475708 0.14616768062114716 0.0006767341983504593
0.5563217401504517 0.30010199546813965 0.0014792134752497077
0.553327739238739 0.29621851444244385 0.0012605696683749557
0.5776143074035645 0.32332390546798706 0.0026775668375194073
0.47025027871131897 0.290202796459198 0.004018236882984638
0.47025027871131897 0.290202796459198 0.004018236882984638
0.5544279217720032 0.2958270013332367 0.0011735904263332486
0.5615472197532654 0.3053559362888336 0.0017244599293917418
0.5614309310913086 0.3055538535118103 0.001747895497828722
0.5586075782775879 0.3036036193370819 0.0016973353922367096
0.5528461337089539 0.2958185076713562 0.0012458092533051968
0.5528461337089539 0.2958185076713562 0.0012458092533051968
0.03103296458721161 0.017563896253705025 9.329667955171317e-05
0.5573810338973999 0.3015883266925812 0.0015675144968554378
0.5578700304031372 0.3024234175682068 0.001622178708203137
0.370811402797699 0.23385082185268402 0.0030097095295786858
0.5531901121139526 0.2966550886631012 0.0013064180966466665
0.6428511142730713 0.3694838285446167 0.0041641006246209145
0.5538082122802734 0.29741665720939636 0.0013477274915203452
0.559285044670105 0.3043443262577057 0.0017338409088551998
0.5531423091888428 0.2965247929096222 0.0012967007933184505
0.5524934530258179 0.29542380571365356 0.001225838204845786
0.32904955744743347 0.20962470769882202 0.002579050837084651
0.5564043521881104 0.30112969875335693 0.0015690994914621115
0.5540738701820374 0.2980331480503082 0.001392020029015839
0.5581771731376648 0.3028937578201294 0.0016515639144927263
0.5613714456558228 0.3064652383327484 0.0018326954450458288
0.49730080366134644 0.2970393896102905 0.0036521817091852427
0.5617278218269348 0.30721423029899597 0.0018858285620808601
0.5544562935829163 0.2956155240535736 0.0011515783844515681
0.5593423247337341 0.30457445979118347 0.0017517248634248972
0.5520076155662537 0.29445016384124756 0.0011587797198444605
0.5581159591674805 0.3029458224773407 0.0016577125061303377
0.4418894350528717 0.2668091654777527 0.003192833624780178
0.5616611242294312 0.30718234181404114 0.0018865480087697506
0.5548095107078552 0.29860541224479675 0.0014103100402280688
0.5562386512756348 0.30128610134124756 0.001590143539942801
0.5514753460884094 0.29466739296913147 0.0012028258061036468
0.5528644323348999 0.2953701615333557 0.001203022664412856
0.5509288907051086 0.2945234477519989 0.001214466872625053
0.5538885593414307 0.29759761691093445 0.0013590131420642138
0.5540805459022522 0.29796433448791504 0.0013838049490004778
0.5938568115234375 0.33301234245300293 0.002834237879142165
0.6006273627281189 0.3373798727989197 0.0029400938656181097
0.5517308115959167 0.29513028264045715 0.0012331525795161724
0.5517308115959167 0.29513028264045715 0.0012331525795161724
0.5537044405937195 0.29764220118522644 0.0013716910034418106
0.5520817637443542 0.2956058382987976 0.0012603751383721828
0.559809148311615 0.3061748743057251 0.0018746897112578154
0.4848043918609619 0.28348085284233093 0.003002696903422475
0.5812668204307556 0.3238685429096222 0.0025442529004067183
0.5619396567344666 0.30734264850616455 0.0018851548666134477
0.5829787850379944 0.3255111873149872 0.002622967353090644
0.5520216226577759 0.2952537536621094 0.0012304113479331136
0.5766932964324951 0.32031574845314026 0.002418550429865718
0.5522832870483398 0.2958970069885254 0.0012771820183843374
0.5529428720474243 0.2964564263820648 0.0012978037120774388
0.5025783181190491 0.29119184613227844 0.002974236151203513
0.5800624489784241 0.32245051860809326 0.002462591975927353
0.5800624489784241 0.32245051860809326 0.002462591975927353
0.4912688732147217 0.28507742285728455 0.0029020558577030897
0.4912688732147217 0.28507742285728455 0.0029020558577030897
0.5829756855964661 0.3243308961391449 0.0025054262951016426
0.5611671805381775 0.3070361614227295 0.0018919231370091438
0.5611671805381775 0.3070361614227295 0.0018919231370091438
0.577353835105896 0.3203214704990387 0.0023866677656769753
0.577353835105896 0.3203214704990387 0.0023866677656769753
0.5522260665893555 0.29572704434394836 0.0012643885565921664
0.5612688660621643 0.30688998103141785 0.0018732931930571795
0.5516017079353333 0.2951061725616455 0.0012365293223410845
0.5517603158950806 0.29560917615890503 0.0012749850284308195
0.5517603158950806 0.29560917615890503 0.0012749850284308195
0.5523419380187988 0.29612109065055847 0.0012950917007401586
0.5543457865715027 0.2983247637748718 0.0014035524800419807
0.5607583522796631 0.3061186373233795 0.001825439976528287
0.5617173314094543 0.30682528018951416 0.0018466360634192824
0.5532160401344299 0.29703545570373535 0.0013379433657974005
0.55183345079422 0.29540377855300903 0.0012526324717327952
0.5623099207878113 0.307643860578537 0.0018948971992358565
0.4834655821323395 0.27959293127059937 0.0027613448910415173
0.5535731911659241 0.2976462244987488 0.0013771905796602368
0.49359962344169617 0.285082072019577 0.0028144926764070988
0.5520820617675781 0.2959155738353729 0.0012880010763183236
0.5588388442993164 0.3041824400424957 0.0017342835199087858
0.5511197447776794 0.2949230670928955 0.001241888850927353
0.5530551671981812 0.2971532940864563 0.0013560253428295255
0.5519813299179077 0.2956445515155792 0.0012680621584877372
0.5554545521736145 0.30044421553611755 0.001546751707792282
0.5609824657440186 0.3058314323425293 0.001787884975783527
0.5782174468040466 0.32041725516319275 0.002353660063818097
0.5782174468040466 0.32041725516319275 0.002353660063818097
0.5519676208496094 0.2960157096385956 0.001302529126405716
0.4783853590488434 0.2758476138114929 0.0026517887599766254
0.6649195551872253 0.35912540555000305 0.0018895046086981893
0.5565128922462463 0.301344633102417 0.0015804491704329848
0.5788142085075378 0.3209768235683441 0.0023781494237482548
0.5534536242485046 0.2972254157066345 0.0013439279282465577
0.430570513010025 0.24978913366794586 0.0023609769996255636
0.5515915751457214 0.29534482955932617 0.0012583585921674967
0.4863615334033966 0.28012779355049133 0.002691309666261077
0.5534788370132446 0.297113835811615 0.0013323408784344792
0.5576968789100647 0.30212855339050293 0.0015981551259756088
0.5792818069458008 0.3220451772212982 0.0024658432230353355
0.5593602061271667 0.30456992983818054 0.0017454138724133372
0.5689769983291626 0.31314972043037415 0.002098293276503682
0.5521128177642822 0.29628750681877136 0.0013202637201175094
0.5777387022972107 0.3198479115962982 0.0023214227985590696
0.5777387022972107 0.3198479115962982 0.0023214227985590696
0.5511610507965088 0.29478639364242554 0.001227488392032683
0.5825387239456177 0.3228430449962616 0.0023807839024811983
0.5563937425613403 0.30135655403137207 0.0015859626000747085
0.5520017743110657 0.29549679160118103 0.001252935966476798
0.5598037242889404 0.30514058470726013 0.001778123085387051
0.5515959858894348 0.29550886154174805 0.0012730233138427138
0.5515959858894348 0.29550886154174805 0.0012730233138427138
0.5804030299186707 0.3214046359062195 0.002343827160075307
0.557609498500824 0.3024124205112457 0.0016275374218821526
0.5515669584274292 0.2953684329986572 0.0012614692095667124
0.5848051905632019 0.32433488965034485 0.002416067523881793
0.5597400069236755 0.3045855760574341 0.0017292347038164735
0.5588307976722717 0.302909255027771 0.0016162467654794455
0.5515616536140442 0.29597851634025574 0.0013172569451853633
0.4879054129123688 0.271099716424942 0.0022732210345566273
0.4879054129123688 0.271099716424942 0.0022732210345566273
0.5556156635284424 0.3010362386703491 0.0015930446097627282
0.5133256912231445 0.29225704073905945 0.0026357450988143682
0.5585444569587708 0.30387401580810547 0.0017184197204187512
0.5809545516967773 0.3211910128593445 0.0022964254021644592
0.7227503657341003 0.4015553593635559 0.003357568057253957
0.5539065599441528 0.29786166548728943 0.001380475121550262
0.556169867515564 0.3017742931842804 0.0016346657648682594
0.5563828945159912 0.301471084356308 0.0015969607047736645
0.5693649053573608 0.31313398480415344 0.0020776281598955393
0.5573683381080627 0.30220597982406616 0.001619225717149675
0.5576925873756409 0.30274736881256104 0.0016538786003366113
0.5584374666213989 0.30354318022727966 0.0016924913506954908
0.5637401938438416 0.3093363642692566 0.001982063055038452
0.57293301820755 0.31564652919769287 0.002145312260836363
0.5682570338249207 0.3120492696762085 0.002026994712650776
0.7702323198318481 0.42020779848098755 0.002672056667506695
0.5589014291763306 0.3040040135383606 0.0017134345835074782
0.5728656053543091 0.31487998366355896 0.0020777254831045866
0.5728656053543091 0.31487998366355896 0.0020777254831045866
0.5829393863677979 0.3218955099582672 0.002268162788823247
0.5548596978187561 0.2998291552066803 0.0015168579993769526
0.5529276728630066 0.2974267601966858 0.001385761657729745
0.552341103553772 0.29700425267219543 0.0013745264150202274
0.5627356171607971 0.3074532151222229 0.0018547915387898684
0.5511639714241028 0.29586923122406006 0.0013256558449938893
0.5671609044075012 0.31105080246925354 0.001983703812584281
0.5531198382377625 0.29873064160346985 0.0014960963744670153
0.5720749497413635 0.31446945667266846 0.0020736653823405504
0.5522322058677673 0.29763755202293396 0.0014373465673997998
0.5859625935554504 0.32360851764678955 0.0022874753922224045
0.5513284206390381 0.29551413655281067 0.0012853844091296196
0.5656228065490723 0.3098489046096802 0.0019417143194004893
0.560403048992157 0.3053831160068512 0.0017703631892800331
0.5524488091468811 0.297190397977829 0.001386260730214417
0.5583895444869995 0.30391812324523926 0.0017289869720116258
0.5509456992149353 0.29532569646835327 0.0012860035058110952
0.5532640218734741 0.2984676957130432 0.0014650062657892704
0.5511177778244019 0.2957985997200012 0.001321038231253624
0.5545007586479187 0.2999753952026367 0.0015461099101230502
0.5500468015670776 0.2949376106262207 0.0012927358038723469
0.5801103115081787 0.3195198178291321 0.002174220746383071
0.5801103115081787 0.3195198178291321 0.002174220746383071
0.552096426486969 0.29698827862739563 0.00138403894379735
0.552096426486969 0.29698827862739563 0.00138403894379735
0.555662989616394 0.30034139752388 0.0015248560812324286
0.5509635210037231 0.2955762445926666 0.0013078987831249833
0.5513033270835876 0.29616960883140564 0.001346286153420806
0.5550215840339661 0.29953721165657043 0.0014815705362707376
0.5498767495155334 0.2943871319293976 0.0012499679578468204
0.6441079378128052 0.34720325469970703 0.0017687802901491523
0.5517962574958801 0.2966609597206116 0.0013678687391802669
0.5529047846794128 0.2977965772151947 0.001420420128852129
0.5511595010757446 0.2958980202674866 0.001327881938777864
0.54931640625 0.29424357414245605 0.0012625183444470167
0.5542051792144775 0.2992236316204071 0.0014902467373758554
0.5534577369689941 0.30063003301620483 0.0016537837218493223
0.5554186105728149 0.30067890882492065 0.0015674835303798318
0.5527511239051819 0.2975606918334961 0.0014055195497348905
0.5509153604507446 0.29537251591682434 0.0012912374222651124
0.5518129467964172 0.29681065678596497 0.0013806113274767995
0.5501980185508728 0.29468783736228943 0.0012621514033526182
0.5510823130607605 0.29566794633865356 0.0013104964746162295
0.5510823130607605 0.29566794633865356 0.0013104964746162295
0.5510823130607605 0.29566794633865356 0.0013104964746162295
0.5520184636116028 0.2965731918811798 0.0013495604507625103
0.549635648727417 0.2942337691783905 0.0012469481443986297
0.549635648727417 0.2942337691783905 0.0012469481443986297
0.5583415627479553 0.30350345373153687 0.0016914241714403033
0.5150976777076721 0.28843748569488525 0.002251369645819068
0.5495724081993103 0.2944299876689911 0.0012677094200626016
0.5523271560668945 0.29779237508773804 0.0014463241677731276
0.804366946220398 0.43436187505722046 0.0022678019013255835
0.5499475598335266 0.29499009251594543 0.0013013124698773026
0.551237165927887 0.29673394560813904 0.0014002062380313873
0.5536999702453613 0.29883989691734314 0.0014784748200327158
0.5504925847053528 0.29535454511642456 0.0013092070585116744
0.5498642325401306 0.2947651147842407 0.0012845613528043032
0.54937344789505 0.29427966475486755 0.001263046870008111
0.549019992351532 0.29439777135849 0.0012904232135042548
0.5535093545913696 0.29867833852767944 0.0014721668558195233
0.549971878528595 0.2948899567127228 0.0012908863136544824
0.5504194498062134 0.2960054874420166 0.0013711745850741863
0.55830317735672 0.3026968538761139 0.0016180936945602298
0.5564242601394653 0.30129188299179077 0.0015765080461278558
0.5564242601394653 0.30129188299179077 0.0015765080461278558
0.5540350079536438 0.29900163412094116 0.0014778643380850554
0.5541499853134155 0.29893162846565247 0.00146509800106287
0.5566837191581726 0.30162230134010315 0.001594880479387939
0.5499795079231262 0.2953646779060364 0.0013336784904822707
0.5510273575782776 0.29701337218284607 0.0014352267608046532
0.5526936054229736 0.29897648096084595 0.0015373005298897624
0.5516836643218994 0.2976439595222473 0.001462233834899962
0.5516836643218994 0.2976439595222473 0.001462233834899962
0.5549993515014648 0.30049121379852295 0.0015692779561504722
0.5495443940162659 0.2948091924190521 0.0013029873371124268
0.550712525844574 0.29728588461875916 0.0014742437051609159
0.5542672872543335 0.2998832166194916 0.0015475922264158726
0.5497676730155945 0.2945634126663208 0.0012704565888270736
0.5511959195137024 0.29632580280303955 0.0013646259903907776
0.5499902367591858 0.29532554745674133 0.0013295805547386408
0.5501208901405334 0.29502812027931213 0.0012962083565071225
0.5501208901405334 0.29502812027931213 0.0012962083565071225
0.5514089465141296 0.2970493733882904 0.001420737011358142
0.5539107322692871 0.2992498576641083 0.0015055539552122355
0.5564201474189758 0.30156999826431274 0.001602179603651166
0.5540173053741455 0.299782931804657 0.0015497468411922455
0.5542089343070984 0.2995905578136444 0.001522926497273147
0.5488227009773254 0.29299405217170715 0.0011717466404661536
0.5528193712234497 0.2982816994190216 0.0014672523830085993
0.5471805334091187 0.2932116389274597 0.0012675314210355282
0.5514208674430847 0.29704511165618896 0.0014192836824804544
0.5498241782188416 0.29601606726646423 0.0013999573420733213
0.5526885390281677 0.29838404059410095 0.0014829846331849694
0.5526885390281677 0.29838404059410095 0.0014829846331849694
0.5473515391349792 0.29320862889289856 0.0012593097053468227
0.5539460182189941 0.2991566061973572 0.0014947777381166816
0.5478367209434509 0.2931467592716217 0.0012315509375184774
0.5537226796150208 0.2991825044155121 0.0015073713148012757
0.553525447845459 0.29896247386932373 0.0014970531919971108
0.5504723787307739 0.29523032903671265 0.001298143994063139
0.5583973526954651 0.3024141788482666 0.0015876166289672256
0.558673620223999 0.30288559198379517 0.0016181065002456307
0.5284464955329895 0.29090651869773865 0.0018992541590705514
0.5540705323219299 0.29904383420944214 0.0014792982256039977
0.5296002626419067 0.29147347807884216 0.0018990704556927085
0.5492181777954102 0.2952987849712372 0.0013622051337733865
0.537667453289032 0.29513251781463623 0.0018661125795915723
0.5519000291824341 0.29762905836105347 0.0014499388635158539
0.5485389232635498 0.29442915320396423 0.0013148016296327114
0.5514086484909058 0.29724442958831787 0.0014379174681380391
0.537388026714325 0.2948746681213379 0.001855804119259119
0.5313765406608582 0.29213830828666687 0.0018801282858476043
0.5468723177909851 0.29242920875549316 0.0012108219088986516
0.5475350618362427 0.292021244764328 0.0011427701683714986
0.5591481328010559 0.3029400110244751 0.001600727322511375
0.5515058636665344 0.29726409912109375 0.0014350464334711432
0.5474859476089478 0.29309961199760437 0.0012430150527507067
0.5474859476089478 0.29309961199760437 0.0012430150527507067
0.5526907444000244 0.29828891158103943 0.0014738963218405843
0.5470128655433655 0.2925659716129303 0.001216659788042307
0.5539061427116394 0.2993251383304596 0.0015120739117264748
0.5531812310218811 0.2984447479248047 0.0014651425881311297
0.5495447516441345 0.2958170175552368 0.0013941542711108923
0.551098644733429 0.2969467341899872 0.0014250115491449833
0.5475226640701294 0.29191920161247253 0.001134499441832304
0.5504499673843384 0.29616832733154297 0.0013842410407960415
0.5475118160247803 0.29309868812561035 0.00124171853531152
0.5540489554405212 0.29930227994918823 0.0015035202959552407
0.5469169020652771 0.29272571206092834 0.0012355842627584934
0.5469978451728821 0.29267728328704834 0.0012274110922589898
0.5454333424568176 0.29128140211105347 0.0011741191847249866
0.5471770763397217 0.29290008544921875 0.0012395287631079555
0.5502910614013672 0.2958984673023224 0.0013673370704054832
0.5466828346252441 0.29158782958984375 0.0011436076601967216
0.8015040159225464 0.4338516891002655 0.0023457277566194534
0.5696359872817993 0.3092345595359802 0.001692569931037724
0.5457283854484558 0.2918773591518402 0.0012139055179432034
0.5457283854484558 0.2918773591518402 0.0012139055179432034
0.5544716715812683 0.2998691499233246 0.00153590168338269
0.5551830530166626 0.3000528812408447 0.001519384328275919
0.5551830530166626 0.3000528812408447 0.001519384328275919
0.5367651581764221 0.2938762903213501 0.0017987090395763516
0.547662079334259 0.293110728263855 0.0012362031266093254
0.5375809073448181 0.29456472396850586 0.001813487964682281
0.5532189607620239 0.29895928502082825 0.0015104437479749322
0.5465882420539856 0.29154959321022034 0.001144226174801588
0.5438926219940186 0.29000329971313477 0.0011301911436021328
0.5438926219940186 0.29000329971313477 0.0011301911436021328
0.5762698650360107 0.31281015276908875 0.0017132771899923682
0.5774047374725342 0.31313356757164 0.0016889398684725165
0.5542507767677307 0.2995377779006958 0.001515661715529859
0.5451176762580872 0.29123935103416443 0.001184660941362381
0.5388180613517761 0.2942899763584137 0.0017422146629542112
0.5539240837097168 0.29827091097831726 0.0014151445357128978
0.555386483669281 0.30018192529678345 0.0015218165935948491
0.545624315738678 0.29180607199668884 0.0012123031774535775
0.546101987361908 0.2922445833683014 0.001229907851666212
0.5501223802566528 0.29630380868911743 0.0014116931706666946
0.5479945540428162 0.29419729113578796 0.0013195648789405823
0.549443781375885 0.29552266001701355 0.0013720908900722861
0.5481180548667908 0.29425662755966187 0.0013188340235501528
0.545802652835846 0.2919727861881256 0.0012191863497719169
0.5473080277442932 0.29392048716545105 0.001325360150076449
0.5487094521522522 0.2961219847202301 0.0014600512804463506
0.5535104274749756 0.29889893531799316 0.0014912016922608018
0.5444487929344177 0.29079338908195496 0.001176138175651431
0.7056947946548462 0.3825436532497406 0.002121648984029889
0.5473165512084961 0.2934863269329071 0.0012857132824137807
0.5552715063095093 0.29919934272766113 0.0014376910403370857
0.5466299057006836 0.29209068417549133 0.0011916180374100804
0.5465171337127686 0.2928965389728546 0.0012692436575889587
0.5465171337127686 0.29267561435699463 0.001249590190127492
0.5480026006698608 0.29429107904434204 0.0013269929913803935
0.5477069616317749 0.2941189408302307 0.0013251102063804865
0.7899969816207886 0.4254423677921295 0.0020317002199590206
0.5471700429916382 0.29332974553108215 0.0012781972764059901
0.5465232133865356 0.2922299802303314 0.0012098983861505985
0.56327223777771 0.30380144715309143 0.0014869250589981675
0.5479581952095032 0.2939436137676239 0.0012976187281310558
0.549286961555481 0.2951638102531433 0.0013466487871482968
0.5443444848060608 0.2908931076526642 0.0011896629584953189
0.5482352375984192 0.29440683126449585 0.001326537923887372
0.54749596118927 0.2938213646411896 0.0013077992480248213
0.5459091067314148 0.2907692492008209 0.001105056842789054
0.5459704399108887 0.291997492313385 0.0012133328709751368
0.5461837649345398 0.2925744652748108 0.0012556937290355563
0.5494517683982849 0.29593828320503235 0.0014092467026785016
0.5494517683982849 0.29593828320503235 0.0014092467026785016
0.598257303237915 0.3284814655780792 0.0018217838369309902
0.5504540801048279 0.296739786863327 0.0014355300227180123
0.54472815990448 0.29087427258491516 0.0011694743297994137
0.5430845022201538 0.28988826274871826 0.0011565610766410828
0.5451127886772156 0.29171842336654663 0.0012280172668397427
0.544467031955719 0.29095396399497986 0.0011888729641214013
0.550352931022644 0.29623904824256897 0.0013948663836345077
0.5483280420303345 0.29447510838508606 0.00132825318723917
0.566656768321991 0.3064707815647125 0.0015740764793008566
0.6618192791938782 0.3581167161464691 0.0018959188601002097
0.5488132238388062 0.29530447721481323 0.0013810888631269336
0.5573412179946899 0.30070221424102783 0.0014779515331611037
0.5433154702186584 0.289999783039093 0.0011559403501451015
0.544826090335846 0.29254698753356934 0.0013153395848348737
0.5491471290588379 0.29515960812568665 0.0013527355622500181
0.5491471290588379 0.29515960812568665 0.0013527355622500181
0.5531988739967346 0.29819026589393616 0.001440761610865593
0.5517509579658508 0.29777792096138 0.0014698613667860627
0.5543110370635986 0.29896318912506104 0.0014596334658563137
0.546704113483429 0.2932765483856201 0.0012948885560035706
0.5435599684715271 0.2902531921863556 0.0011672487016767263
0.5508787631988525 0.2967059314250946 0.0014129974879324436
0.5669065117835999 0.30640050768852234 0.0015553750563412905
0.5669065117835999 0.30640050768852234 0.0015553750563412905
0.5448039174079895 0.2916286587715149 0.001233843038789928
0.551027238368988 0.29662826657295227 0.0013991818996146321
0.5611696839332581 0.30273351073265076 0.0014856945490464568
0.5444249510765076 0.2910805642604828 0.001202122773975134
0.5479549169540405 0.29467537999153137 0.0013636961812153459
0.5781317353248596 0.31260886788368225 0.001603165757842362
0.5781317353248596 0.31260886788368225 0.001603165757842362
0.5443671345710754 0.29082611203193665 0.0011819537030532956
0.5524886846542358 0.29687079787254333 0.0013537422055378556
0.5445043444633484 0.2913021743297577 0.0012183749349787831
0.5445043444633484 0.2913021743297577 0.0012183749349787831
0.5583059191703796 0.30049562454223633 0.001413980033248663
0.649929940700531 0.3512444794178009 0.0018096172716468573
0.649929940700531 0.3512444794178009 0.0018096172716468573
0.5434548258781433 0.2901129424571991 0.0011598089477047324
0.5476183891296387 0.29316696524620056 0.0012431106297299266
0.5486254096031189 0.2946871221065521 0.0013336812844499946
0.5603092908859253 0.30220311880111694 0.0014769950648769736
0.5874882936477661 0.3175705671310425 0.0016226026928052306
0.5426928400993347 0.2895829975605011 0.00114728813059628
0.5505777597427368 0.29658180475234985 0.0014155422104522586
0.5442494750022888 0.2898791432380676 0.0011021611280739307
0.5451777577400208 0.29212164878845215 0.00126112240832299
0.549129068851471 0.29516276717185974 0.0013535984326153994
0.5439493060112 0.29059240221977234 0.0011799532221630216
0.5885098576545715 0.31766074895858765 0.0015814241487532854
0.5445658564567566 0.2915123999118805 0.00123443768825382
0.49250057339668274 0.2667594254016876 0.0013781912857666612
0.5475263595581055 0.29412025213241577 0.001333202002570033
0.545069694519043 0.29163968563079834 0.0012226304970681667
0.545069694519043 0.29163968563079834 0.0012226304970681667
0.5407484769821167 0.28876233100891113 0.0011627039639279246
0.5439690947532654 0.28953495621681213 0.0010838528396561742
0.5443128943443298 0.29117608070373535 0.0012158354511484504
0.5099405646324158 0.27606162428855896 0.0014211671659722924
0.5416930317878723 0.2889554798603058 0.001137116109021008
0.5428673028945923 0.28978514671325684 0.0011571403592824936
0.5445200204849243 0.29142406582832336 0.001228485954925418
0.5400572419166565 0.2928397059440613 0.0015584261855110526
0.5412485599517822 0.2933177649974823 0.0015467478660866618
0.5401688814163208 0.2928057909011841 0.0015510156517848372
0.5441269278526306 0.29090678691864014 0.001200142432935536
0.5441842079162598 0.2905415892601013 0.0011644137557595968
0.5434468984603882 0.2899842858314514 0.0011483831331133842
0.5423893928527832 0.2894880175590515 0.0011526766465976834
0.5425990223884583 0.2893846929073334 0.0011337195755913854
0.5619143843650818 0.3027856647968292 0.001455298624932766
1.046999216079712 0.5638788342475891 0.0027974857948720455
1.046999216079712 0.5638788342475891 0.0027974857948720455
0.45051079988479614 0.2434607595205307 0.0012055514380335808
0.60183185338974 0.32453790307044983 0.0015888973139226437
0.5403035283088684 0.29260778427124023 0.0015269602881744504
0.5177930593490601 0.279740571975708 0.001397020649164915
0.539034903049469 0.2919343411922455 0.0015241687651723623
0.5422908663749695 0.28950852155685425 0.0011590520152822137
0.5652421712875366 0.3044902980327606 0.0014563404256477952
0.5510753989219666 0.29641273617744446 0.0013773238752037287
0.5389598608016968 0.29179155826568604 0.001514715258963406
0.5417212247848511 0.2896234095096588 0.0011957857059314847
0.4981634020805359 0.2689675986766815 0.0013252743519842625
0.45093023777008057 0.24348030984401703 0.0011912854388356209
0.5414631366729736 0.2929862439632416 0.0015087544452399015
0.5414631366729736 0.2929862439632416 0.0015087544452399015
0.525704562664032 0.28397586941719055 0.0014169764472171664
0.5373855829238892 0.29011738300323486 0.0014366605319082737
0.5474932193756104 0.2931503653526306 0.001247500884346664
0.5474932193756104 0.2931503653526306 0.001247500884346664
0.5755005478858948 0.30997663736343384 0.0014799273340031505
0.5517631769180298 0.2966468036174774 0.0013662701239809394
0.5568199157714844 0.2997353971004486 0.001412933343090117
0.5568199157714844 0.2997353971004486 0.001412933343090117
0.5419812202453613 0.29311972856521606 0.001497163437306881
0.5355008244514465 0.2891804277896881 0.0014381768414750695
0.5315747857093811 0.28700679540634155 0.0014220182783901691
0.5254017114639282 0.28376296162605286 0.001411830889992416
0.5410166382789612 0.28826621174812317 0.0011061971308663487
0.5345355272293091 0.28781211376190186 0.0013614008203148842
0.5425119400024414 0.2930065989494324 0.0014626390766352415
0.6644062995910645 0.3557426631450653 0.001487313536927104
0.5024239420890808 0.27083587646484375 0.0013016698649153113
0.5414705872535706 0.28879520297050476 0.001133179641328752
0.5414757132530212 0.29264017939567566 0.001477060024626553
0.5278303623199463 0.28464511036872864 0.0013816484715789557
0.5391823649406433 0.291101336479187 0.0014431331073865294
